ply
format ascii 1.0
element vertex 696
property double x
property double y
property double z
property uchar red
property uchar green
property uchar blue
end_header
-1.4117643013149521 0.1811805661815840 3.4866638199872564 23 22 31
-1.5039139611178176 0.1870007291757482 3.4585645708547030 45 49 65
-0.3010193828610918 0.2427207019782769 3.9134671540704336 215 220 214
-1.6273270447222765 0.2133285694839746 3.4026806846557864 25 23 37
0.9483633790369626 0.3740944342199727 5.1734433517759921 205 215 191
-1.6457197000670480 0.2405470558224919 3.3814050128251827 37 42 48
-1.6843144898157285 0.2305941865807711 3.4256254884832886 30 31 36
0.6785635724697299 0.4734526110241748 5.7679788550500799 71 76 98
-1.3373302205284068 0.2743516559918712 3.4772181542805045 31 26 40
-1.5658186832686103 0.2917074866315015 3.3956274447971988 60 51 62
-0.3601813692590688 0.3725144257431284 3.8379553250599376 215 217 214
-1.3441270618254402 0.3308266545390282 3.4643973720243975 144 154 143
-1.2871957723634717 0.3644707524894777 3.4673763625105418 73 76 87
-1.1734491137867560 0.3706471224218918 3.4959909927967843 39 33 43
-0.3089866450836247 0.4248007778335640 3.8464450666045216 211 213 208
-0.8687231719818961 0.4122517042151456 3.6216700353570812 139 142 137
-0.5973664158917708 0.4595816588756998 3.7178990606540032 97 96 103
-0.7521197868933230 0.4658667909082156 3.6449710922804792 125 126 133
-0.3055760795443848 0.5128160686756468 3.8165635335850356 160 163 164
0.0976530584521092 0.5477893086518902 4.0055724020812731 51 31 27
-1.3500148991759686 0.4539508745638762 3.4146749675651593 47 42 56
-1.2695059236764583 0.4813456838637191 3.4494269812823295 138 142 140
-1.1667417623292167 0.4909534435144912 3.4553271200417544 38 35 51
-1.2498452274358376 0.5031422778900334 3.4164703046322922 133 133 129
-1.2178418398551027 0.5086978694528685 3.4340239015568774 82 86 115
-1.0351164416220191 0.5466329674094542 3.4834336712936738 25 22 36
-1.1312398921714870 0.5455130572717568 3.4515560816291471 25 25 30
-0.3855361849094852 0.6070466847734813 3.7540155433178204 197 201 200
-1.1514822123725965 0.5601548743085440 3.4375253658075939 19 18 26
-1.2616079618930434 0.5852206551913850 3.4233546639644690 99 99 103
-1.1835279804116143 0.6012668103752172 3.4114378914373993 115 122 120
-1.2791293598398328 0.6043559826421712 3.3856522623146601 137 142 134
-0.8298251414302210 0.6245809737694640 3.5315811164552979 58 56 68
-0.5428348950281778 0.6648272780016182 3.6650530298922921 144 157 141
-1.1684316764528004 0.6137565014143715 3.4144502961372245 119 121 129
-1.2532324722986576 0.6221472829928520 3.3999060345863650 134 139 134
-0.8980480664301620 0.6400436305503364 3.5005001811720935 130 136 135
-1.2159450621746200 0.6448466099310107 3.4090190983183275 23 13 29
-0.7788726748301688 0.6884642190592025 3.5319408113760913 143 141 143
-1.1938928987016726 0.6648116016363343 3.4056561887526970 22 18 34
-1.1451304424826041 0.6746213708106720 3.4129152681199662 23 21 34
-0.9487013282963063 0.7107564764886585 3.4734968245306663 34 33 50
-1.0590071572279711 0.7038883599714657 3.4123421034193813 112 111 107
-1.1724842544009502 0.6847708105770679 3.3788273724235247 135 138 125
-1.1370283669875312 0.7135852610305237 3.4015075521880282 27 24 32
-1.0740201174476336 0.7107154906847712 3.3868546737159471 48 43 53
-0.5176530720497857 0.7697442179234588 3.6235908094828173 203 204 198
-1.0377624068032789 0.7297707245502049 3.4269237913970869 176 192 199
-1.0243396612775866 0.7420949302433734 3.4102221459684077 162 169 162
-1.0822119238067005 0.7516287449615665 3.3945177530587740 20 15 30
-0.7046301943808705 0.7954337166316163 3.4870336629396612 33 27 35
-1.0041769984845761 0.7657590974866390 3.3866578577455662 34 34 45
-0.7859047219016525 0.8241165377549994 3.5017025755964775 37 34 39
-0.6853291981750838 0.8436225608521055 3.5355735676138873 24 20 38
-0.9638117159676932 0.7921221907187371 3.3881728831826408 149 152 141
-0.5980283836045447 0.8475890391911369 3.5538546928024943 187 196 183
-0.7617550792196410 0.8385995641862711 3.5091256641929651 60 57 89
0.5778504519751447 1.2718916494097969 5.1389882809434271 46 32 49
-1.0006530471029140 0.8241435374822254 3.3976591207238145 12 6 22
-0.8623117097702246 0.8517108051435122 3.4643388868699510 89 92 92
-0.8257808713084412 0.8543157951164658 3.4154054858040515 41 36 46
-0.7997871664454712 0.8684017193518638 3.4850523647300187 23 22 34
-0.8044363521302410 0.8960691542546771 3.4784573575708091 28 26 37
-0.7346312659845154 0.9062850667279708 3.5020493507120025 149 166 167
-1.1361269783514791 0.7409183513582451 3.4132468123283650 170 188 178
-0.7752943514531709 0.8928217175822314 3.4188966907897980 47 45 58
-0.8109698360503101 0.9136900342857042 3.4678213604098946 117 121 117
-0.9163065664346709 0.9079761206512077 3.3925953117981797 10 6 24
-0.7656496481070668 0.9230877932828926 3.4224028811577298 144 143 141
-0.7172468423949692 0.9391464516885536 3.5019047425990228 18 16 28
0.0591176996080682 1.4566404253613385 5.2221389729079535 49 46 69
-0.0795063114354666 1.5229453498218144 5.2927245637055220 243 252 234
-0.8003531973278626 0.9394089121848671 3.3822975411849252 105 111 115
-0.8552748721659472 0.9210507803761061 3.3785442671627024 97 94 97
-0.7680760589047050 0.9636297609389362 3.4704762927144452 143 153 154
-0.7927939648075267 0.9919278596613964 3.4331000033724903 46 50 72
-0.7865961258173670 1.0158711074373834 3.3796593927359679 24 23 37
-0.7447348081805312 1.0118670332395883 3.4305791983900451 194 203 196
-0.7811776185782355 1.0455573692563263 3.3868309583851084 135 139 135
0.1339724921974989 -1.2332998814538352 4.5118412667116701 143 159 157
-0.1505729190419692 -1.0947831725179189 4.3854592620750061 114 112 111
0.3221179413931420 -0.6373564527131528 4.4186285174872983 44 39 45
0.6995811026471458 -0.6135988790495523 4.4546373280296816 42 42 64
0.4857123204466574 -0.6346763813468302 4.4355456702716127 167 174 185
0.5855595246631170 -0.4176673208939096 4.3651404230710975 216 220 229
-0.6383659909618267 -0.2357251894127032 4.0928716739662985 164 168 171
0.2272317420041217 -0.2034088276301337 4.1396489490172517 223 233 234
-1.2682512179359906 -0.1287189889948337 3.6796990682410056 66 68 70
0.3413125409269207 -0.1093089458171258 4.1421434226801006 210 222 220
-1.6170411475621651 -0.0115037073822038 3.4725639404108377 177 179 175
-1.6767344235205430 0.0485333606700304 3.4378371828901466 218 219 207
-1.6779318130982122 0.1162508424349155 3.3893952009062991 170 173 170
-1.5516729211549756 0.1967561831042889 3.4353472126504641 147 151 148
0.9422495306474347 0.3822387793297998 5.1966142209490256 204 213 192
-1.6452176616941288 0.2351595803017142 3.4153470859397448 24 19 32
-0.3879170842050256 0.2858749052502607 3.8557883986835524 101 102 104
0.6804432990714885 0.4713661542383237 5.8525828234771771 64 67 80
-1.4192870193332237 0.2780385939517100 3.4452901100168005 142 146 145
2.5425483373015796 0.7527204987675206 7.4195830056151841 46 45 52
-1.1810642863631982 0.3771247448633644 3.5052264651199154 28 29 37
-0.8706247601123520 0.4112497436557767 3.6205099994530525 152 155 163
-0.3611254340239566 0.4782099194239008 3.8127055591268548 173 180 184
-1.2849279168806973 0.4913868418671737 3.4011078848613425 56 57 64
-1.1681909645004436 0.5475931556825491 3.4374368256375516 17 15 29
-1.3265215833654183 0.5368189955353450 3.4075034800501793 24 21 31
-1.2221060970271111 0.6014410335297365 3.4081685619397084 103 102 108
-1.1730216383664331 0.6064662459558455 3.4173553978645450 73 72 75
-1.2080772850036983 0.6457390210029884 3.4134964592438450 16 12 27
-1.0870918709613853 0.7515870925013590 3.3993816258450020 24 20 36
-1.0280401647812225 0.7309586829303323 3.4088645546501994 162 164 166
-0.8282135127443132 0.8144908880046517 3.4896161417928950 26 24 33
0.0478382613331639 1.2916256741331795 5.2862657759863421 62 53 58
-0.7427642233842540 0.8412677781166831 3.5107507682343422 155 160 150
-0.9352956259701127 0.8314882625493222 3.3746287033773235 13 9 19
0.0544093100773037 1.4016516442851876 5.2168958469912328 240 248 228
-0.7107601039455581 0.9672162300837878 3.4944464169288803 181 185 177
-0.1414157192794807 1.5082971835736334 5.1965400378885329 215 230 212
-0.7434570270058231 1.0049037349038008 3.4304944036339413 195 200 198
-0.7910832776230506 1.0154139999343075 3.4067830860482009 23 18 32
0.4372955153506014 -1.0206877227070261 4.5175898921461624 139 144 144
-0.0968406823445181 -0.6229728270473074 4.2867349472464209 93 95 107
0.5215586593532416 -0.5850764160508577 4.4390699616604037 72 71 85
0.6156612036308383 -0.5594846106315355 4.4225134955110850 59 55 78
0.4206772019564528 -0.3921060318479030 4.3085001648869161 168 179 178
-0.4754684668118251 -0.3215632216151431 4.0342642875804691 197 208 210
-0.6325440513172578 -0.2763281349323519 3.9574938615637003 129 128 150
0.3589173410335496 -0.2510525508321294 4.2554911818577539 144 146 148
0.2913152409990225 -0.2408352682329453 4.2182193252685991 99 100 116
0.2319988170506819 -0.2041253298263573 4.1849679407257154 220 223 219
-1.6002012322505281 0.0749083993628067 3.4685941912067011 130 133 126
-1.4873378448099530 0.2054031713718950 3.4531105221056682 137 136 138
-1.0456620661852014 0.3267761669811515 3.5916363996696798 100 103 116
-1.0865563964943632 0.3548985484304482 3.5367864269519180 44 44 54
-1.2504436567214325 0.4588818331102624 3.4311173343005037 46 47 65
-1.2616897352645768 0.5511132096719201 3.4114209462009244 23 21 32
-0.4706018981188224 0.6692872943174438 3.6949086947514220 149 150 145
-1.1415200165801036 0.7068712812774388 3.4005478947134811 37 41 52
-0.7426382734265189 0.8412985235956509 3.5137285435400325 155 160 150
-1.0019290412555832 0.8235891371246354 3.3995193234447729 14 7 24
-0.7631601443390369 0.9002953919608345 3.4871602567884286 31 29 43
-0.7941440979750743 0.9517441167408611 3.4564059553510664 59 57 79
0.0250283442137715 -1.1463368666199747 4.6584357031043258 34 32 44
-0.1556759633048030 -1.1105995839065050 4.4516490905817978 97 93 106
0.2484594258249426 -0.9262120232928571 4.4850585059827202 174 184 187
0.6573286745190982 -0.8913132645370319 4.4922477819216038 58 57 60
0.7649423498236874 -0.8498547817533002 4.4686701685502026 195 205 206
0.5287780486255551 -0.7355425949963572 4.4958252448187563 169 179 190
0.6496522844559756 -0.6999623026544485 4.4869639473697998 55 53 76
-0.1181098695635262 -0.5894258024043380 4.2445221012078314 135 140 142
-1.2625973739803991 -0.4476326761985410 3.7354252745331591 101 68 30
-0.5576902334848144 -0.4672819255771738 4.0452333985285822 29 25 46
-0.8189612210761241 -0.4509924552716534 3.9422137924325469 190 196 196
-0.9497737054111500 -0.3227913468390606 3.8656547817010205 197 198 200
-1.0472445670182440 -0.2737346682315756 3.7509188445258852 59 57 73
0.4997862961444767 -0.2866423272847660 4.2812934857867946 223 230 230
0.3854272178720503 -0.1775503381768413 4.2230821896711763 219 230 234
1.0455612433368007 0.0778987864197732 5.2234312272356469 33 29 35
-1.4653710448821871 0.0390333028696417 3.5234783566259429 30 31 40
-1.3913810038089633 0.0520296167820420 3.5523582441875874 31 27 35
-0.8872796432938538 0.0718887038740226 3.7068756520791570 79 85 90
-0.4219399606726624 0.0828138281689229 3.9209260815149909 197 206 210
-1.6738844324027913 0.1095392097178700 3.3761132133906737 167 172 168
-1.3261677425620582 0.1540529195950303 3.5420268963962509 31 29 44
-1.3023629867068689 0.1914342753594904 3.5317578426860132 179 189 191
-1.5475683197847674 0.1930475824178724 3.4346978994412432 161 167 174
0.7977127024395572 0.3664826508622610 5.6123411859546755 49 51 53
-1.4296516855099892 0.2066449128846967 3.4677917469943944 131 134 131
0.9383644872267953 0.3912527832192653 5.2377965636043369 207 217 197
-1.5039267742888249 0.2617221460889665 3.4423123132008548 20 18 31
-1.2605002998894752 0.3003000687884516 3.4844077985831516 27 25 38
-1.4172098892562681 0.2897388717902016 3.4498181141757605 140 146 146
0.3763645279962317 0.6325394573542048 5.5645335085799363 81 70 67
-1.5132731482489583 0.3424220783585570 3.3938624533138877 24 14 31
-0.3117477273545377 0.4265332267384294 3.8402625788814673 203 208 201
-1.1787881486703269 0.3699569570285257 3.4971728969841664 22 24 38
-1.3379931376207479 0.4182524829223578 3.4055745725508983 169 174 171
-1.1383406973403631 0.4566367207504285 3.4761598451710105 133 142 141
-1.3145749128031550 0.4575762522243957 3.4161705018228132 139 148 149
-0.8388475717668608 0.4025239052087122 3.6155248253650285 28 31 34
-1.3030097333849540 0.4944620041657760 3.4181252841256269 38 36 47
-0.5316549989274453 0.5507210938964764 3.6834136363871024 61 55 65
-0.7426477456287687 0.5214449415810614 3.6432683155147743 43 43 54
-1.3187841228933337 0.5380423688514029 3.4082398540383867 18 16 25
-0.7046994568053777 0.5874156842885881 3.6362738655655171 127 127 127
-1.1647175011771280 0.5457643687211928 3.4346704644533461 26 22 45
-1.1675225613456313 0.6019242560024504 3.4207676561094287 57 54 63
-0.9467136236603247 0.6143876393910702 3.4900404335108375 156 161 159
-1.1424163785392270 0.6757244315749956 3.4140503709435008 20 13 31
-1.0279613938058823 0.7254852125866609 3.4040468891944844 156 158 156
-1.0876961321308822 0.7446422918228988 3.3997207301684549 26 21 38
-0.7145163998647316 0.7697400679771285 3.5462160704327110 129 130 137
-1.0153826300880184 0.7846517474447031 3.4023432507927018 51 49 60
-0.9718761700543438 0.8099949239948647 3.4310074531719725 138 138 140
-0.6256706134486523 0.8606240115968832 3.5557767413081987 182 194 210
-0.9463583432979753 0.8513035403813317 3.4043704788363942 15 10 22
-0.9064322401464944 0.9261283755145858 3.4400585331213582 29 30 41
-0.7570622105568043 0.9623689939987428 3.4004321368511499 181 189 193
-0.7375882317126132 0.9854582570886532 3.4033850662561398 193 196 202
0.0062961057860393 1.6345566723706395 5.4276079064835479 216 221 206
-0.6110601841453972 -0.8303486764067839 3.9747029320566227 161 124 35
0.7666854042137579 -0.8534682763320447 4.4669732048921027 196 206 209
-0.4297951209640318 -0.6526210691220899 4.1653924793886263 28 26 47
-0.5330448497358198 -0.6221167949191899 4.1050891985151994 207 216 223
0.4920072754761144 -0.3952771759692486 4.3002520096649590 48 46 59
0.6461530564732914 -0.4948123541334578 4.3781496431640150 206 214 219
0.2552383569857222 -0.1181902541190004 4.1755583646638597 99 65 32
-0.1886446628022687 -0.0636746930912380 4.0521532432059750 60 61 65
-1.5242462207695360 0.1414328316037092 3.4624489928039495 18 12 22
-1.2006070534055973 0.1671797028346525 3.5883849830163648 144 146 143
-1.2517611339650756 0.2877840339689171 3.5080146514792920 26 23 32
-1.4102067487185024 0.3041831388562539 3.4640742220157534 162 164 162
-0.3585187041145986 0.3886876856865463 3.8323282467791526 205 207 211
0.4736324484941238 0.1652051246718487 1.6616207347432119 195 194 158
-0.7330537974404506 0.4350266286827272 3.6676956208840092 171 176 176
-1.0696626387674291 0.4221875182029684 3.5202395117477510 22 20 34
-0.4171171151131827 0.4796218834256935 3.7837134385137912 45 43 54
-1.4844018840063020 0.4034811794574991 3.4011209917208323 178 193 200
-0.5526239170756094 0.5609797842473978 3.6808477332973104 41 40 46
-1.0712354928168741 0.6417072445556564 3.4211393925170097 26 22 32
-0.9582221457330177 0.6377962226411878 3.4802862301585074 147 151 148
-0.9314447201304418 0.7133365417645293 3.4274011866308696 33 25 41
-0.5810946757062856 0.7586014681311483 3.5784603943180389 29 26 37
-0.9500525737562048 0.8690356502295952 3.4360984377016019 9 4 18
0.6309735623483639 -0.6804253882865211 4.4365240375518988 105 105 121
-0.3639053890380416 -0.7665791187501374 4.2072377208047484 52 58 75
-0.4782027506192006 -0.5562045575752584 4.0958332608002834 133 134 170
0.1215880003357882 -0.6479744897285374 4.3507283415897495 29 27 32
-0.3306012966444338 -0.1317662601384385 4.0403695239970654 103 110 132
0.3209867458671004 -0.1825300139187951 4.1713220609373183 81 83 102
-0.5664253034894136 0.0209475251512553 3.8862528410526451 30 23 69
-0.3021813889672718 0.0239858052268078 3.9969209288677434 119 125 136
-1.3171638839681763 0.1136615792471086 3.5680984440514263 91 84 94
-1.0037358130148699 0.0841394039676463 3.7036703066553804 45 44 53
-0.3357036989006495 0.2018190869920114 3.9136659079156089 115 120 133
-1.1459932978609277 0.1922807231772325 3.6186731734362767 59 57 63
-0.8938184080897483 0.1446160519898091 3.7220238321582979 145 148 144
-1.2813823380483254 0.2367783710909208 3.5215671784498306 31 27 43
-0.2563446677657472 0.4807167483742908 3.8634139911952681 214 225 227
-0.3217625226981617 0.4241721676956288 3.8508984094734835 199 201 213
-0.3175501438113540 0.5358931521119442 3.8137245922037923 213 219 219
-0.3159091395670561 0.4789438762989977 3.8243024148501150 85 88 100
-1.1927732379216276 0.4297224588019959 3.4668803502754750 36 40 58
-1.1509262018702249 0.5231130806247227 3.4561843226930509 52 52 60
-1.1426098683788188 0.7358938213778227 3.3968726761444739 118 118 119
-0.4390941105322538 0.5960545392115980 3.7290043625722338 93 93 94
-0.6922740337111603 -0.6009359943351988 4.0534574989670586 139 144 153
-0.4165028875496197 -0.4985907038164274 4.1175507939090821 27 23 46
-0.3513251903141039 -0.4330913900241234 4.1686647040626879 186 194 192
-0.8666948167150521 -0.3862960165753043 3.9041429614319387 127 131 135
-0.4046929197647499 -0.3456713667665863 4.0720307246790730 30 27 48
-1.1676321478393621 -0.2901327363025928 3.7454542984130468 38 36 39
-0.9344155571507570 -0.2966597046851323 3.8912498747621318 178 184 185
-0.9945487627190605 -0.3184700027443351 3.7725938622887574 166 174 171
-1.4620276864703796 -0.1277306076828119 3.5665331338431243 179 181 180
-1.3541168715169583 -0.1052611248351802 3.6130042261598101 54 51 60
-0.6761306740537748 -0.0470969263767393 3.8716535113107531 29 28 44
-0.7795921410588049 -0.0868856508740505 3.8415275784145644 195 203 205
-1.5989855017530779 0.0374759827990758 3.4413633651177205 153 160 151
-1.3644049258615703 0.0527194339875061 3.5744631333677503 54 45 54
-0.5124352081421834 0.1053278720418888 3.8770352605471952 32 31 42
-0.2681542475319134 0.1748205109358311 3.9380517265604253 197 212 219
-1.6791746447763705 0.1765501511804523 3.4253878106382363 92 92 95
-0.7511836151552597 0.1902829066196709 3.7541891751615197 158 163 150
0.8992201633357304 0.4566510196278376 5.2924039711458137 210 213 198
-1.6938669677273881 0.3013461966213060 3.4224709209686868 116 91 32
-1.1708619532916813 0.2685900886912089 3.5392026048118042 54 53 61
-1.4095125276559735 0.3173339403679051 3.4521889649759694 165 170 173
-1.0267462800188192 0.3366803956660828 3.6151603731886803 131 134 136
-0.9787705178778265 0.4110113489955807 3.5898741229479074 46 51 47
-1.0736908919343728 0.4106351034991886 3.5346983939122856 23 21 32
-0.8475769321360539 0.3827754044818743 3.6195487530225585 43 37 48
-0.8718359774295257 0.4982925283677020 3.5577474011774255 194 203 198
-0.4851435984929112 0.5316843682601162 3.7246312839974545 172 175 177
-1.2256960702837070 0.4891949568630827 3.4274675594510882 145 152 150
-0.5754719140219007 0.5833573464307863 3.7069038479543002 34 35 40
-0.9823390390557429 0.6245008654511908 3.4966842669763589 121 120 126
-0.9552996609439246 0.7311695696523466 3.4626838704428722 31 27 38
-1.0753276995183270 0.6414853036579007 3.4192632172854158 23 21 32
-0.6043077006179958 0.7590825194441825 3.5592311182233041 48 51 56
-0.7069975913540820 0.7528652826341722 3.5185652312870808 147 149 146
0.6848524576524806 0.2283297860111225 5.4210264115178814 209 214 207
-0.5397372486657537 0.2305774558008851 3.8702020988889507 159 169 168
-0.3298250906237024 -1.2507130837473657 4.3773994265110954 64 64 76
-0.4139479371514084 -0.9945156754872586 4.2522912534234658 108 106 103
-0.5989473890340014 -0.4270033097966754 4.0157616023548410 33 30 43
-0.2190554185027727 -0.9460282045151184 4.2949092187332640 158 154 152
-0.7503106420918346 -0.1233755262701705 3.8451249179751654 166 179 169
-0.6065495255625993 -0.2695302063129497 3.9657573402249957 169 175 173
-0.2088854896733838 -0.7942333467980841 4.2687624749625748 107 96 111
-0.3328025525155017 -0.5649683709932203 4.1634887347387890 204 214 206
-0.1670179016686194 -0.6131212796441174 4.2381428782247230 86 88 77
-0.4583455253744880 -0.1122355754885963 3.9714830431556942 47 51 73
-0.1760813133968106 -0.2663931439735981 4.1255244222127256 56 56 86
-0.5429750058420147 -0.9161526154154865 4.1916299046478649 132 133 133
-0.2226431608024620 -0.9467472513016372 4.3007478784994371 113 112 104
-0.5564026558711492 -0.4378154867888516 4.0369073697635880 32 29 48
-0.4582363621770343 -0.3417698827225844 4.0197531093923899 176 180 177
-0.3406734822502413 -0.4871297614754284 4.1385443627242369 163 172 166
-0.4538239147029161 -0.0924149067176765 3.9659445431055755 41 38 71
0.0109960792669153 -0.8102425311032893 4.3367570594289750 69 68 67
-0.1792738671037689 -0.3331408696469277 4.1468166789416774 207 216 213
0.2078623520808082 -0.9008585685860155 4.4671806929710565 65 63 69
0.2235497260383330 -0.8276178697429933 4.4562320477137156 172 175 176
0.2247222180675896 -0.6671276139362745 4.3848291904287606 108 106 108
0.2565096511224239 -0.5731711880701896 4.3745700328597117 146 148 141
-1.2938728122753702 0.0006272355592863 3.5777327707706901 122 128 132
-1.4674301689522851 0.2659656538126153 3.4228398257044583 17 16 32
-0.4127127658656675 -0.9922590499165664 4.2485911624303734 111 113 99
-0.1571960798112588 -1.2986556853626492 4.4309331809581103 153 150 149
-0.7664157201386407 -0.2801955886154632 3.8968384436078662 173 185 178
-1.1969426323457468 0.4366763235789495 3.4618904108962711 38 40 60
-0.0606168984165282 -1.2434574668753688 4.4767281295246741 158 163 156
-1.2046931656079269 0.6342295362744053 3.4060969123625746 33 29 46
-0.9246106175674454 0.2210298201604196 3.8278651264832324 53 55 61
-1.1384523573485832 0.7381252233592021 3.4128561264798019 179 191 190
-0.8594668488166752 0.3728728998759245 3.7669632120944230 26 26 32
-0.4380978226869008 -0.0353744299522812 3.9378798142415334 152 162 159
-0.7207812570525557 0.7111891858685573 3.5550300297157484 31 33 48
-1.8742313255244878 0.0483535388054957 3.3109856284641848 6 1 13
-1.4940665960148429 0.3056483866960051 3.4169102148463542 138 149 156
-1.4216460402042563 0.2027782541626381 3.4692974967134877 154 166 163
-0.3760087049593659 -1.2034067024321440 4.3363280477073403 152 150 143
-0.3176817759190996 -1.2370334275652894 4.3571145442619841 65 62 66
-0.8117544204366184 -0.5123859401071941 3.9648757423739576 107 118 130
-0.3492200372985686 -1.1915694716881278 4.3549631199853751 54 44 58
-0.1643172550409623 -1.2919827394551142 4.4430151517337446 150 146 146
-0.6012016948019122 -0.3507547852094744 3.9923910372849907 28 27 44
-0.4685403844454479 -0.4983349695421626 4.0943984912268938 31 29 46
-0.8550542836347734 0.2154166527991768 3.7049324544260918 177 184 185
-0.0868903006392581 -0.8892862472333825 4.3354827980948336 38 37 42
-0.4658923380002273 -0.2961013085132512 4.0214719401475225 30 29 52
-0.3475918993273589 -0.3463939888107979 4.0864215990205217 26 23 40
-0.6377724565333986 -0.1890223230607145 4.2748632159159721 34 31 47
0.0273140395520525 -0.7717505456893164 4.3279474903493274 71 67 69
-0.4625959915993044 0.0265991164630913 3.9217242521175875 72 77 91
-0.3687597965444335 0.0085008484692778 3.9578381356192076 22 23 27
-0.3818323636184408 0.2899786035196903 3.8473824889333179 98 103 107
-0.6827106524097269 0.8440067631977396 3.5358870485702822 25 22 38
-0.2433636240302212 -1.1915018774740975 4.3784243820669646 146 143 136
-0.2646878998272640 -0.8349757995182960 4.2558562179414334 137 135 136
-0.1044781715254704 -0.9406412055085226 4.3378965969889833 133 132 118
-0.2421288212330669 -0.7008638988515767 4.2224176286946458 176 181 168
-0.4706482816107180 -0.1252659000165764 3.9587370001058746 31 24 56
-1.1555410927673400 -0.4801581794051431 3.7642222006792614 103 74 44
-1.1098441067058904 -0.3970467192378264 3.7855416726396807 102 70 28
-1.5471282937713173 0.2913677278693362 3.4019571464456488 22 20 38
-0.5745391964122746 -1.0996512736946544 4.2859143221243672 199 204 193
-1.4986985219493281 0.2194489985782718 3.4909908332101853 138 146 150
-0.7865837220388515 -0.6474118589919774 4.0106738824945065 141 102 40
-0.3187969781095718 -1.2369093684450658 4.3706914270537762 90 85 89
-0.6088169765217589 -0.7436435209191083 4.1232150482849539 104 106 122
-1.3355471740494014 0.3974072430820065 3.4369467082514178 175 191 203
-1.2934366584219441 0.4227242513684468 3.4364987326403735 65 69 100
-1.1755200960760923 0.3219334706761165 3.5154545958426104 100 105 109
-0.4476152983152204 -0.8249334378421550 4.1948483638928584 145 147 151
-1.1631105846983396 0.3564966379713213 3.4861765455868499 29 28 42
-0.6432428692559502 -0.3990406749387942 3.9635715512288230 177 186 187
-0.6084694908394960 -0.4572042014326355 4.0423069653409831 160 166 169
-1.1519283208057032 0.4999254432968551 3.4561367254386206 89 93 102
-0.6168863248783073 -0.2517761918315894 3.9099445469770133 180 184 196
-1.1857444906475629 0.6295743063116415 3.3987567154962615 27 26 44
-1.0102014123880456 0.5810968055932632 3.4725556341735975 135 140 138
-1.1423397230241126 0.7386579313916463 3.4117415176407757 181 189 189
-0.9476560703192474 0.4982800620931108 3.5319573023381556 72 73 83
-0.6090040455332542 -0.1122926252779429 3.9690834276267015 203 212 203
-0.3635840708602159 -0.4259989607492521 4.0762279355675739 181 185 184
-1.0462960344131358 0.7387830125238226 3.4313330247669547 189 201 209
-0.8391364365153633 0.5177909804201057 3.4898524332644718 60 63 73
-0.5232176920146917 -0.0953482362526429 3.9326067001359286 25 23 45
-0.9915134849097675 0.7844095859164826 3.4568236733631368 34 31 49
-0.0137176804697333 -0.7886906605080413 4.3415252289838202 158 155 145
-0.2959746596466885 -0.3161089914738335 4.0930472523280743 135 142 137
-0.8947891362889130 0.7665423786274296 3.4756405901275036 29 28 43
-0.4698421347076692 0.0307648638242233 3.9311317532819663 29 33 64
-0.2141226158806665 -0.3727369429283571 4.1437263052213442 25 23 34
-0.4300608119942084 -0.0090346727864212 3.9760435228268323 33 28 42
-0.2006475971381924 -0.3457388218025773 4.1354062662902917 27 25 36
-0.2030893825775924 -0.2353801784859006 4.1004472028385957 128 131 131
-0.7297297828875702 0.8325837022499747 3.3734840995281750 41 40 53
-0.6814591795636246 0.6701369323904837 3.6078069775976722 102 100 119
-0.3701430060415101 0.1913645395870910 3.8881406728699601 157 164 173
-0.6335359883112004 0.6929408320953964 3.6213559746157205 23 16 30
-0.4376319278709163 0.5109685655610635 3.7603694602463613 173 180 181
-0.3392459763701003 0.3052345682931096 3.8621363921247536 194 201 200
-1.7308753645962407 -0.0457712040309413 3.3828962294936020 63 58 59
-1.8153180921605188 0.1499601689723201 3.3928081904238900 180 189 183
-1.8298051236162354 0.0557176059860386 3.2918261640908231 3 2 10
-1.5444952031994468 0.0298965084527950 3.5029998357814174 45 45 56
-1.6116007550980098 0.2972477186891727 3.4266942401158484 41 38 54
-1.2749046375777140 -0.0037121350194895 3.6211928046864323 177 189 198
-1.4016699997294699 0.3063156544908154 3.4450093439220408 183 194 213
-0.8155440902522515 -0.5094256263074173 3.9784923755999162 124 131 140
-1.4203751727849216 0.4540575429649212 3.4046824149287871 181 192 210
-0.8766286652265388 0.0836142142103184 3.7270003093113409 75 73 76
-0.6064790795321944 -0.3207809327661037 3.9624300842041689 168 171 174
-1.1027034435193297 0.6471537225113321 3.4452808076584494 29 27 41
-0.4350518935647183 -0.4250637663063094 4.0727114103643416 176 180 183
-0.5709848343791565 -0.1977189590383941 3.9592599430937505 25 23 39
-0.9575494038055790 0.6463510691550369 3.4817575474045928 166 180 190
-0.5103489452190907 0.4433567596447177 3.7918569687610373 47 45 55
-0.5477577942993420 0.5610922473952897 3.6953893828708262 32 30 43
-1.3125091111202645 -0.1890530096738433 3.6624261179162647 46 52 61
-1.2680935864032850 -0.1898513030106014 3.6901499644204661 174 189 189
-1.4088867985054188 -0.0466726115020186 3.5849835626164719 48 54 68
-1.3277987343528186 -0.0580652831065900 3.6190179118263055 47 38 65
-1.5042006911095778 0.4060951377267192 3.4095072678453016 177 195 206
-1.6604448359948689 0.1578348999250822 3.4040354712427003 101 105 113
-0.8242361178060129 -0.4576492903967777 3.9395681634617428 179 189 201
-0.6166794563144609 -0.3201850323961215 3.9727234597142900 177 186 191
-1.6148021387285372 0.0416985740960424 3.5360827141103477 44 41 54
-1.8098428854863498 0.1418839902130440 3.3929246196739702 188 193 192
-1.3772070606735107 -0.1175402272856722 3.6285454312265699 51 51 68
-0.6347203635667757 -0.9735825291217847 4.1595031684485972 218 218 206
-1.4142447994661267 -0.1946539548337561 3.6474337539302364 205 218 226
-1.4552661900806394 0.3918112485140764 3.3887267130060663 175 191 197
-1.5541774722313635 0.4624015933409066 3.3563991497209567 5 1 2
-1.2241283885088574 0.2728254397022539 3.5021576705135353 47 46 59
-0.5080384088684792 0.1900801643093433 3.1219290162228228 53 57 74
-1.4531156717221616 0.6132452579030457 3.3512128143862463 6 3 10
-0.9171357024611714 0.3116424415257886 3.6455361230127017 48 50 57
-0.0937304441773990 -0.8727894157325616 4.3293924625878430 50 44 51
-0.8128875599851023 0.2849511842577189 3.6970856454125665 55 55 65
-0.3520421730586604 -0.4278384828329280 4.0783574719480580 178 183 183
-0.8719058205301656 0.5938600708603833 3.5252676855585632 25 21 45
-0.9703149499044047 0.7330419179946562 3.4755979692560426 29 28 44
0.0100515850777591 -0.8600196137353810 4.3800958747018246 48 43 48
-0.9046904121647152 0.8174275315466395 3.4695799033648576 31 26 46
-0.5030369302636120 0.2478505599996444 3.7975892109573590 57 61 78
-1.3528561062910118 -0.1362249319513585 3.7211669630320867 51 55 69
-0.4164450807005363 -1.0080389298695078 4.1711136308927079 44 40 47
-1.1765856941027240 -0.2709612505690430 3.7563811069733823 35 32 46
-0.7924070625610139 -0.2164934056397508 3.8174143983825215 32 29 46
-0.9054681226714320 -0.1054905511983829 3.7673925737950862 204 223 230
-0.6652011822316675 -0.0501630990280522 3.8602926279819205 28 27 41
-0.7301576059731227 0.1146558958683555 3.7478263070077951 42 40 54
-0.9755082460107074 0.6067943970508898 3.4864525972610507 174 186 198
-0.3322358608161990 -0.4209702544412878 4.1148107514153915 67 74 80
-0.5344716792213194 -0.0082591160104180 3.8452362931814092 26 28 84
-0.9133941207942491 0.4722878695376843 3.5876707973182400 177 186 192
-1.0803375212773441 -0.2932170461110334 3.8490004417460253 172 177 175
-0.5808614999923216 -0.1327350901402526 3.8984733548967196 90 101 141
-1.0255292555868616 0.2180037117695711 3.6411205066110934 44 43 60
-0.8165824780367369 -0.2123934672043142 3.8370724369977385 27 26 38
-0.8270326533462806 0.0209654955946211 3.7667905738509027 81 89 92
-0.7070417025760442 -0.4724615820650835 4.0322486978922978 184 192 195
-1.4289836267025369 0.0421568456259571 3.5427516859386081 189 198 187
-1.3325803215101686 -0.0711938380455733 3.6214934976254747 149 156 152
-1.1247939250466064 0.2398993493109554 3.5771035648104510 143 153 149
-1.2872739859905078 0.4151242569662811 3.4358096562316787 54 56 83
-0.4889532605277336 -0.4180215405357643 4.0521574670211971 139 149 140
-0.3481405795610477 -0.5657717754119027 4.1620386069515547 35 25 56
-0.6869237238632072 0.0763783782289640 3.7903677974738645 77 77 97
-0.9384162947446953 0.4856574739807681 3.5463889872520431 82 81 104
0.0494752773468318 -0.6529118542969601 4.3365785673949961 149 151 141
-1.0048095230511913 0.8125911260787808 3.4413144109165414 154 167 173
-0.9769624113224968 0.8074583896837958 3.4248041470783561 159 167 168
0.1916183200270188 -0.6439732184277513 4.3600453178245990 74 76 86
-0.7127325404786639 0.5829170074697123 3.6213387778528205 159 165 164
-0.8371871926838781 0.7838000398286878 3.4936322183862423 127 130 129
-0.7903642152924631 0.7827013126784235 3.5213573940466416 120 128 129
0.2853711533306577 -0.6162104779149146 4.3871245814875746 170 173 153
-0.4849752185581593 0.5231391619375693 3.7310308714406260 193 202 191
-0.4600641508114203 0.4932724377850174 3.7563708655253429 139 151 140
-0.5191390216528783 0.6036521058814709 3.6991204917969651 72 74 82
-0.5444974598420058 0.6660930120513839 3.6635109081748434 134 138 128
-0.4331895860206214 0.5603796519748605 3.7471362048068610 133 140 140
-0.4075179048736940 0.5327882610677654 3.7690808037796133 49 51 63
0.2356754974281213 -0.3115813039066587 4.2234031992658361 57 53 62
-0.5438036519768282 0.7284493859750064 3.6533171945746954 72 71 97
0.3143608062731622 -0.3821442111266134 4.2847007869355576 163 163 144
0.2939873757088453 -0.3567902426101416 4.2724073753633132 68 68 74
-1.5937688137972965 0.1788445941440900 3.4286621260707193 165 175 175
-1.5866023278556405 0.2012207661723455 3.4257339594274767 36 30 58
-1.5433596397320888 0.1985908747662662 3.4310338590087337 142 147 153
-1.1939711152220269 -0.1928758536524647 3.7133956966660309 144 152 156
-0.1658284506832004 -1.1617274623442564 4.3913642669561304 164 164 141
-0.1867021403531820 -0.9087614438344744 4.2930541265007047 167 173 148
-0.4943936623347547 -0.5711957565382699 4.0966546920240194 164 166 170
-1.0909538007323012 0.1165830344994505 3.6510996061612455 130 134 131
-0.4599329168067131 -0.5743057095682143 4.1125148093048605 65 73 94
-1.1922935263947818 0.3200345583309460 3.5101913965301330 135 141 144
-0.5635199273193663 -0.4274343421449998 4.0253596810647858 178 181 181
0.1898911001765357 -1.1647272243581062 4.5014009521749960 134 130 121
0.1248123433475348 -1.1274497631616762 4.5220457306844191 142 144 136
-1.0772458487586516 0.3808263423149045 3.5388834622123557 95 97 104
-0.0565082654795064 -0.8004882409776770 4.3230184436677215 66 66 71
-0.5918776300420678 -0.1244186772526987 3.9114342762066081 89 92 115
-1.0617560749475452 0.5021635372890957 3.4707070782928140 115 119 126
-0.7701460475396041 0.1853055686071142 3.7379599034800028 156 164 164
-0.2647698886873704 -0.4302002285904614 4.1546872793088312 29 24 40
-0.8990912635737428 0.4115322807838064 3.6112304964329991 138 150 148
0.3029132183269836 -1.0165674341620126 4.5201875132625702 130 124 113
0.1292980029844128 -0.7668002155696605 4.4028499231747276 168 168 155
0.3374654387721400 -0.9256188115633120 4.4966566193235398 141 140 135
0.3467339364384654 -0.8877295019819588 4.4888542416816986 64 61 70
-0.8246348067254345 0.6542729794932006 3.5263362224036130 38 34 54
-0.6702998377201310 0.4918591145822919 3.6571898229514277 98 110 120
-0.7494071176947348 0.6180569136260207 3.5825787074898519 83 85 87
0.1968401033692491 -0.5789922614207099 4.3335475261625129 174 178 162
-0.7589409314390747 0.7030057496719566 3.5408188650630552 70 77 96
-0.7308162562895757 0.7062795800969379 3.5416287105948405 34 46 55
-0.7852233450961542 0.7804928889284191 3.5178512417341117 122 130 132
-0.7364529863536202 0.7654480639995018 3.5310036352036547 179 189 198
-0.7799911194014165 0.8262980171456936 3.4998017486768296 28 31 48
-0.8109824272475655 0.8784322441186729 3.4711623840174939 157 169 175
0.3427042980695876 -0.6440589705103013 4.4119254882956449 151 146 145
-0.3688272811690530 0.2839949870656856 3.8698114280064022 168 180 183
-0.6938816067302727 0.7580197157210254 3.5528987648067263 139 143 140
-0.6810107230195727 0.7645082438458553 3.5570301370270494 28 26 36
-0.4184022798470208 0.3940926268856706 3.8046525935667752 66 78 95
-0.5777945214690207 0.6597237991839781 3.6461255991122310 151 154 145
-0.4063028101183467 0.4256355418211537 3.8046001284402284 173 178 163
0.3807381489948212 -0.5959048679503988 4.4012946098980041 169 164 151
-0.5653795741003612 0.6659217259416296 3.6526483904754028 56 60 71
-0.4425817405460983 0.5224033875302146 3.7598096778449439 184 190 183
-0.5814331670644125 0.7252815915817474 3.6251545384849417 58 58 63
-0.6583870591505193 0.8471370668406774 3.5472518251311582 25 19 32
0.5307573582596837 -0.6802851680499530 4.4491049650911609 57 47 58
-0.8708999471080235 0.8592877250623409 3.4702866711142311 118 125 135
0.2181674177304865 -0.4487213133390421 4.2835393822323873 89 84 105
-1.1777668899679385 -0.4740566822995647 3.7325790601053668 207 212 196
-0.1615347717733162 -1.4457230701433443 4.4897828962025192 137 140 143
-1.1838813995913375 -0.3209776200343137 3.7337933576138376 53 51 72
-1.5928318184048060 0.1776799588122346 3.4278357826595682 177 182 182
-1.5787353033701916 0.1991487705241835 3.4199460768419390 34 32 56
-1.5543554797038703 0.2002499418170856 3.4367125113786021 146 154 163
-1.2832572313812733 -0.0004376994774967 3.5865642996700262 109 119 128
-0.2194610918233477 -0.9461778219889474 4.2956743638649053 138 141 121
-1.2492936310286415 0.2085280520266956 3.5506690837472679 163 161 166
-1.2105693670441662 0.1779041609021991 3.5685709674868340 62 60 94
-1.2856158796783606 0.2608622849064695 3.5481958590345788 94 96 102
-0.2860895620103587 -0.8170847501203103 4.2421285576130643 109 108 121
-0.7706576311366115 -0.2064736099898226 3.8759759414931274 33 30 49
-0.4173309710072740 -0.5592495736236062 4.1283513135165588 25 25 47
-0.2242688309478131 -0.7622682865843506 4.2591790590845795 142 141 129
-0.0595195759541685 -0.9331669158252291 4.3604204763036876 140 140 129
-0.6164645874445114 -0.3053288519421238 3.9673976402095481 30 30 74
-1.2665158288039278 0.5189539376940904 3.4171213027731313 176 184 192
-0.8678125672288329 0.1212755792187352 3.7250394970181517 54 56 72
-0.6009030518370242 -0.2006121729241874 3.9493553646111441 29 26 49
-0.9541451771197235 0.2476848594595742 3.6576196510228018 132 142 141
0.1167359636973599 -0.9383027240529309 4.4680220075779973 65 58 74
-0.6012809660673161 -0.0636308627959163 3.9015392387372740 178 189 189
-0.4764746052485244 -0.1984595179141010 3.9914831926715597 28 25 44
-0.5362401295775479 -0.1079748935037518 3.9475389463658002 27 28 51
-0.2627323583164610 -0.4331693903241678 4.1527483002404724 28 24 39
-1.1816724740918074 0.6897234304786091 3.4076252179621367 182 192 190
-0.9750697882660279 0.5131480019530726 3.5107983297951040 54 51 64
-1.0612810412940177 0.6066809039670560 3.4522995698052084 29 26 37
-0.3220207672578801 -0.2977609763529730 4.0793865017161517 31 26 63
-0.9800266504707810 0.5584350675489991 3.4906562357048991 79 83 110
-1.0998883818401457 0.7272966492040068 3.4157085116527508 57 55 87
-1.0878557650434928 0.7521810779206062 3.4182406317579064 43 42 81
-0.9404096275505573 0.5976880781411493 3.5072988184762233 109 117 135
-1.0261464611040099 0.7231180383423519 3.4226435529687755 166 181 189
-0.3133067703695201 -0.1838118857997959 4.0466108125453228 203 210 199
-1.0358600915625891 0.7521046746126514 3.4235473144038258 178 190 196
-0.0622102713286470 -0.4736725994914069 4.2236844388786263 144 147 136
-0.4496496226450118 0.0041491965774968 3.9389377026035604 54 49 82
-0.9467893379746019 0.7092126743204654 3.4720354084187446 21 17 34
-0.9176634074876258 0.7099170034461054 3.4768503895064344 162 172 170
-0.7913439503274009 0.5937417074218023 3.5619895992805657 160 168 172
-0.8595991392328792 0.6844493097330263 3.5053618085964895 132 138 139
-0.7808901896147528 0.5679048784219836 3.5951850844619022 41 39 53
-0.9758319701110899 0.8570669176351506 3.4287559995806158 26 25 48
0.1815005628083233 -0.6163358581514894 4.3434088206774168 169 170 147
-0.7183060169431927 0.5610886564221400 3.6199092133323472 147 147 156
-0.6839694501676077 0.5143737609657109 3.6497427597474470 90 92 109
-0.7294001281214424 0.6228421673209700 3.5843095133275380 38 37 47
0.3215614524359975 -0.7424635873418868 4.4424143071885638 91 88 82
-0.6451161087816309 0.5207154902326775 3.6539300505592851 61 62 75
0.2889935301315661 -0.6935252182329649 4.4176251023748963 83 75 85
0.3132081103108322 -0.7277135986965836 4.4327650426004839 110 106 110
-0.6946807614137765 0.6612829162619912 3.5219289893131629 149 151 159
-0.7629402514639956 0.7045131158923188 3.5405462777194305 75 79 105
-0.6828171817269277 0.5942533186779185 3.6285133188435674 126 131 135
-0.5325848865207249 0.4076956920764988 3.7596575133221446 26 24 38
-0.8315290246565765 0.8333815054350465 3.4800864568869074 128 137 116
-0.7755839684789797 0.7741545594453988 3.5136399377265666 136 144 149
-0.8116607282755596 0.8329845621573014 3.4857921690560594 38 41 57
-0.5407094852994646 0.4651073631486405 3.7279892731080735 25 24 35
-0.7407039183305364 0.7536932303655340 3.5212563497352378 42 39 63
-0.8299806378229933 0.8596183521981320 3.4820359145964943 81 88 101
-0.7609977433911034 0.8103721310491032 3.4904207993721452 29 30 47
-0.3555226538433991 0.2414506023451216 3.8852846218489319 167 173 173
-0.4964577538361885 0.4607932775648768 3.7345259371816577 26 23 33
-0.7821422896539455 0.8489611934005551 3.4994233312715561 158 163 170
-0.5111143350363783 0.4906184907967415 3.7221404763558956 33 38 44
0.3380400706745366 -0.6080920329350552 4.4030311353959970 59 53 61
-0.7106204857071128 0.8061685110416693 3.5249363530649922 46 46 66
-0.6948835774118680 0.7881138978473780 3.5581335460315380 127 139 148
-0.8397171240038125 1.0030321421785899 3.4378917136960405 17 15 29
-0.7625551227226414 0.9033696458151079 3.4906985430703297 17 14 24
-0.8039550941393979 0.9678936749395568 3.4669613663008678 45 50 80
-0.7068758205550126 0.8286008587936191 3.5409054400391895 128 133 135
0.3807658820111831 -0.5970753034912861 4.4013698316098422 142 141 131
0.2720828343840746 -0.4354123354846253 4.2995700826701544 114 111 112
-0.3666007371200249 0.4039146099086553 3.8274327436977233 147 155 142
0.4569273305945467 -0.6645849923208283 4.4359655331817116 49 50 57
-0.7447793184870632 0.9141979712133029 3.5082009478971092 154 169 173
-0.5423315860487627 0.6648652030301252 3.6635619680287297 144 157 141
0.1844659666221245 -0.2617558051610758 4.1908772726033687 102 100 110
-0.5062267405052505 0.6398255012060194 3.7011864996975694 127 134 135
-1.7415277275777479 0.1500217032570109 3.3791952106635579 178 195 196
-1.8080445979415296 0.0446028748557993 3.2958672603508266 4 2 13
-1.7115482151330015 0.2040854656694212 3.3854022664839012 164 171 169
-1.5489405304965729 0.1946787006027194 3.4398955060267951 148 158 166
-1.5397734057334109 0.2960424756391777 3.3974944277585508 33 35 51
-1.3991714835818143 0.1460292938498800 3.5050329914860616 39 39 49
-1.4288084249880879 0.2050079015822875 3.4709259171877274 150 159 171
-0.8711692130539197 -0.4001148944900231 3.8821170465047339 88 87 104
-1.0852713508318987 -0.1565130731629059 3.7390358667964154 55 55 72
-0.0811267956520104 -1.1756716913185639 4.4552227146131562 46 40 49
-0.2861643616573362 -0.8163166200124448 4.2413341045428394 123 125 122
-0.8140812892037408 -0.0656512846950963 3.7974582316294430 195 204 209
-1.2674691801986682 0.5463210155913876 3.3970237368022875 21 25 43
-1.1995867060580876 0.4745105960832119 3.4184104971740026 133 146 156
-0.9911604373027442 0.2583414340267910 3.6335728606960185 44 44 49
-0.3575730923524690 -0.4992566853136075 4.1286072402867191 29 29 39
-1.2640327448379935 0.6209082990214173 3.4019681839884011 164 172 160
-0.5306800416834716 -0.2743536572046472 4.0058397084209618 166 175 172
-0.4738598212321837 -0.3278836515157292 4.0351511633953470 176 179 180
-0.9324459465313354 0.3012597900214501 3.6490770619590616 46 48 58
-1.0576560482355202 0.4773652974472928 3.4947832098551390 156 171 169
-1.1967965245713583 0.6430527549922237 3.4040406706755229 22 16 30
-0.5542096418882864 -0.1245548442347804 3.9410419025836054 171 178 184
-0.9616901609010539 0.4235861988711577 3.5581871574322976 28 30 41
-0.5477609593706879 -0.1428410066242732 3.9642810898336833 26 25 40
-0.3507774688131718 -0.2700014302143424 4.0709742686095680 161 166 161
-1.0091099614176793 0.6291320609177833 3.4767200730983534 53 57 79
-1.0751296259969279 0.7460812659913894 3.4111014818749510 48 44 79
-0.8478069833395678 0.6716345374888166 3.5152653531411122 48 46 59
-0.7994488195409335 0.6792526582205596 3.5318373547412891 154 161 175
-0.3458086300214099 0.1553538284549827 3.9162702631994906 149 154 158
0.3493037196903968 -0.6648557106109595 4.4246751559623876 37 33 45
-0.7803437449419630 0.8595971749836832 3.4751682650679614 38 39 55
0.3070197599775325 -0.5530333048208123 4.3158270271810846 54 47 46
-0.8299190749365496 1.0080423057653949 3.4432370817985261 30 31 57
-1.2263478491891311 -0.3243772250930173 3.7284378696735216 183 200 200
-1.5298563716302178 0.2433880862648136 3.4203729975798898 115 122 125
-0.0388977188356501 -1.2332600510774150 4.4814375970628895 76 67 94
-1.1171081156981375 -0.0080495671219097 3.6829526294511910 43 47 56
-0.1861770040604482 -0.9179281933094944 4.3073102510377987 182 180 170
-0.0271226882928305 -0.8801113132771142 4.3498359539958908 53 50 62
0.0736844119144334 -1.0347848376467137 4.4909960765236647 48 44 49
-0.6095824735482708 -0.1261966783577355 3.9195243582795016 202 218 209
-0.3195078935054284 -0.2642317388219105 4.0706381780173357 199 209 192
-0.3827779225603509 -0.1318081444729862 3.9406965633649578 89 84 98
0.1533988122066865 -0.7155043183393960 4.3729232807340894 189 191 180
-0.8548806299967572 0.6460613623729130 3.5211157735095293 150 159 164
0.1809710058190142 -0.5451560688770194 4.2546552463301408 139 136 130
-0.7248384353191342 0.6568834945228564 3.5890370669680900 44 40 53
-0.8046385552305119 0.7876937133809985 3.4943214479890896 49 47 65
-0.4366995324411136 0.3469001385186766 3.8003098366640811 75 80 80
-0.3583161560857934 0.2346215162555505 3.8849523905435075 152 158 165
-0.4436451641313361 0.3728483318950550 3.7974511554699881 71 77 82
-1.8398970837875588 0.0521126947385239 3.3016010706521479 3 1 11
-1.7805112404752714 0.1495996335679939 3.3917716273974512 180 190 198
-0.5823615796201441 -1.0285744068255385 4.2006403516366655 192 195 185
-0.5397922846370916 -1.0257064323493699 4.2112606018826639 35 29 43
-1.5838618470187500 0.1721821350610239 3.4351547396525373 146 156 158
-1.6616824674521820 0.2639642802891422 3.3759504424088913 150 146 124
-1.2280271706244650 -0.0953230667940700 3.7991641365839599 58 60 65
-1.2744373482167308 0.1400438160747635 3.5204005876407485 33 31 52
-0.8228610833804152 -0.2955531513309571 3.8872536950805494 191 205 216
-0.5609669699249517 -0.4570950751703667 4.0412790499528830 28 28 39
-1.3612611749792649 0.5080996430794378 3.3971972884905828 178 194 203
-1.2129029892480534 0.4189855825359270 3.4746709302499363 44 45 64
-0.6218071470067165 -0.2685164964481365 3.9485422087019959 29 27 58
-1.1155012815542866 0.3244695490136265 3.5613903491271586 43 40 53
-1.1985076934386454 0.4784224195274215 3.4174367092680757 135 148 158
-1.2900021290538266 0.5544219385123661 3.4048637744132790 45 46 64
-0.3538290240188577 -0.5609446147799405 4.1505013154241945 110 112 130
-1.2098768831413433 0.4872608036708989 3.4436131190888406 147 157 169
-1.3392614610469598 0.6155260688685719 3.4173081403232151 171 172 160
-0.5431219767892967 -0.3061668537025966 3.9958763853310479 19 19 27
-0.5654791947715833 -0.2786073490552755 3.9793253663995078 174 182 185
-1.1410874830601008 0.4958034082457199 3.4528380157424032 75 78 89
-1.1393310299095731 0.4613631148659235 3.4721437745532580 134 139 144
-0.4587688651779774 -0.3475455425184160 4.0600809165280261 26 24 38
-0.0029780368993659 -0.8302178645369938 4.3505435891668656 176 179 165
-0.9739102962128428 0.4250935529429946 3.5652575545318759 28 28 40
-1.0176375680463237 0.6739410326401384 3.4504529959457000 22 19 33
-0.9673357999810680 0.6503999680720147 3.4743365031504263 185 193 204
0.2691470131709030 -0.9063773716578414 4.4860543008532687 78 73 77
-0.3421189445043966 -0.1198085508748500 4.0249646179593874 38 37 73
-0.7843896332621945 0.6211756148112334 3.5427823236864238 77 77 86
-0.8245207238850144 0.6644625635730868 3.5069439588725611 50 60 72
0.3050225891542571 -0.7515506558449488 4.4442895123657120 44 33 45
-0.4397417417206644 0.2139109896627225 3.8700757446489522 73 72 81
-0.8290707943545416 0.7680437262747062 3.4840015964959683 145 149 164
-0.9064240501326941 0.8602647031176672 3.4488986291686001 132 137 142
0.2447093178248056 -0.6038238994123323 4.3744351642359156 89 85 89
-0.5039428286727825 0.3594494833735170 3.7767918638994473 149 157 146
0.2517521120949667 -0.6216984841479664 4.3833698751027494 54 49 54
0.3058351379700872 -0.6830645536928737 4.4113876573547435 144 141 132
